# .PCD v0.7 - Point Cloud Data file format
VERSION 0.7
FIELDS x y z
SIZE 4 4 4
TYPE F F F
COUNT 1 1 1
WIDTH 55
HEIGHT 1
VIEWPOINT 0 0 0 1 0 0 0
POINTS 55
DATA ascii
0.027224811 -0.14498794 0.91376585
0.027297268 -0.14410418 0.91619778
0.027370112 -0.1432157 0.9186427
0.027443351 -0.1423225 0.92110085
0.02751698 -0.14142448 0.92357212
0.027591003 -0.14052162 0.92605662
0.027665425 -0.1396139 0.92855453
0.027740249 -0.13870125 0.93106592
0.027815485 -0.13778368 0.93359107
0.027891127 -0.13686112 0.93612993
0.02666495 -0.1359262 0.93863213
0.027967181 -0.1359335 0.93868256
0.026737856 -0.13499357 0.94119853
0.02804365 -0.13500082 0.94124913
0.026811162 -0.13405581 0.94377899
0.028120538 -0.13406302 0.94382977
0.026884871 -0.13311289 0.94637358
0.028197851 -0.13312009 0.94642472
0.026958983 -0.13216478 0.94898242
0.027033508 -0.13121141 0.95160574
0.027108446 -0.13025278 0.95424366
0.027183801 -0.12928881 0.95689625
0.026073778 -0.12635754 0.96489012
0.027412394 -0.12636445 0.96494293
0.026147064 -0.12537183 0.96760219
0.027489454 -0.12537873 0.96765548
0.027566951 -0.12438746 0.97038347
0.027644878 -0.12339056 0.97312659
0.026369425 -0.12238117 0.97583085
0.027723245 -0.12238799 0.97588521
0.026444389 -0.12137297 0.97860503
0.027802061 -0.12137973 0.97865957
0.026519777 -0.120359 0.98139489
0.027881328 -0.12036573 0.98144984
0.026595596 -0.11933922 0.98420066
0.027961049 -0.11934594 0.98425609
0.026671857 -0.11831362 0.9870227
0.026748547 -0.11728209 0.98986077
0.026825687 -0.11624464 0.99271542
0.026903268 -0.11520118 0.9955864
0.026981302 -0.11415166 0.99847406
0.02705979 -0.11309604 1.0013787
0.027138736 -0.11203427 1.0043001
0.027218141 -0.11096627 1.0072386
0.027298015 -0.10989201 1.0101944
0.027378358 -0.10881142 1.0131676
0.027459174 -0.10772446 1.0161583
0.026126623 -0.10662487 1.0191077
0.027540471 -0.10663106 1.0191668
0.027622249 -0.10553116 1.0221931
0.026519166 -0.10105953 1.0344194
0.026599094 -0.09992633 1.0375371
0.026679505 -0.098786272 1.0406736
0.026760403 -0.097639307 1.0438292
0.026841797 -0.096485384 1.0470041
